176.0 -328.0 1522.0
180.0 -326.0 1515.0
185.0 -326.0 1515.0
189.0 -325.0 1509.0
193.0 -322.0 1496.0
198.0 -322.0 1496.0
202.0 -321.0 1489.0
206.0 -319.0 1483.0
211.0 -319.0 1483.0
216.0 -318.0 1477.0
221.0 -318.0 1477.0
224.0 -316.0 1470.0
229.0 -315.0 1464.0
233.0 -315.0 1464.0
238.0 -315.0 1464.0
242.0 -314.0 1458.0
246.0 -313.0 1452.0
250.0 -311.0 1446.0
255.0 -311.0 1446.0
259.0 -310.0 1440.0
264.0 -310.0 1440.0
268.0 -309.0 1434.0
271.0 -307.0 1428.0
275.0 -306.0 1422.0
280.0 -306.0 1422.0
284.0 -305.0 1416.0
288.0 -305.0 1416.0
292.0 -304.0 1410.0
295.0 -302.0 1404.0
299.0 -301.0 1399.0
303.0 -300.0 1393.0
307.0 -300.0 1393.0
312.0 -300.0 1393.0
316.0 -299.0 1388.0
318.0 -296.0 1376.0
321.0 -295.0 1371.0
326.0 -295.0 1371.0
329.0 -294.0 1366.0
332.0 -293.0 1360.0
336.0 -292.0 1355.0
339.0 -291.0 1350.0
344.0 -291.0 1350.0
348.0 -291.0 1350.0
351.0 -289.0 1344.0
356.0 -289.0 1344.0
359.0 -288.0 1339.0
361.0 -286.0 1329.0
365.0 -286.0 1329.0
370.0 -286.0 1329.0
373.0 -285.0 1324.0
377.0 -285.0 1324.0
379.0 -283.0 1314.0
382.0 -282.0 1309.0
385.0 -281.0 1304.0
389.0 -281.0 1304.0
392.0 -280.0 1299.0
395.0 -279.0 1294.0
398.0 -277.0 1289.0
402.0 -277.0 1289.0
405.0 -276.0 1284.0
408.0 -276.0 1280.0
413.0 -276.0 1280.0
415.0 -274.0 1275.0
418.0 -273.0 1270.0
421.0 -272.0 1265.0
425.0 -272.0 1265.0
428.0 -271.0 1261.0
430.0 -270.0 1256.0
433.0 -270.0 1252.0
436.0 -268.0 1247.0
440.0 -268.0 1247.0
443.0 -268.0 1243.0
445.0 -266.0 1238.0
448.0 -266.0 1234.0
450.0 -265.0 1229.0
455.0 -265.0 1229.0
457.0 -264.0 1225.0
460.0 -263.0 1221.0
464.0 -263.0 1221.0
466.0 -262.0 1216.0
470.0 -262.0 1216.0
473.0 -261.0 1212.0
474.0 -259.0 1204.0
476.0 -258.0 1200.0
481.0 -258.0 1200.0
483.0 -257.0 1195.0
487.0 -257.0 1195.0
489.0 -256.0 1191.0
490.0 -255.0 1183.0
492.0 -254.0 1179.0
494.0 -253.0 1175.0
498.0 -253.0 1175.0
502.0 -253.0 1175.0
506.0 -253.0 1175.0
509.0 -252.0 1171.0
511.0 -251.0 1167.0
513.0 -250.0 1163.0
515.0 -249.0 1159.0
517.0 -249.0 1155.0
521.0 -249.0 1155.0
523.0 -248.0 1151.0
526.0 -247.0 1148.0
528.0 -246.0 1144.0
530.0 -245.0 1140.0
531.0 -244.0 1133.0
534.0 -244.0 1133.0
536.0 -243.0 1129.0
540.0 -243.0 1129.0
542.0 -242.0 1125.0
544.0 -242.0 1122.0
550.0 -242.0 1125.0
554.0 -242.0 1125.0
554.0 -241.0 1118.0
556.0 -240.0 1114.0
558.0 -239.0 1111.0
562.0 -239.0 1111.0
563.0 -238.0 1107.0
567.0 -238.0 1107.0
571.0 -238.0 1107.0
571.0 -237.0 1100.0
575.0 -237.0 1100.0
579.0 -237.0 1100.0
581.0 -236.0 1097.0
584.0 -236.0 1097.0
588.0 -236.0 1097.0
592.0 -236.0 1097.0
0.0 0.0 0.0
0.0 0.0 0.0
0.0 0.0 0.0
0.0 0.0 0.0
0.0 0.0 0.0
0.0 0.0 0.0
-1882.0 -764.0 3602.0
0.0 0.0 0.0
0.0 0.0 0.0
-1772.0 -733.0 3458.0
-1760.0 -733.0 3458.0
-1731.0 -726.0 3423.0
-1719.0 -726.0 3423.0
-1708.0 -726.0 3423.0
-1680.0 -719.0 3390.0
-1652.0 -712.0 3357.0
-1624.0 -705.0 3324.0
-1613.0 -705.0 3324.0
-1602.0 -705.0 3324.0
-1561.0 -692.0 3262.0
-1550.0 -692.0 3262.0
-1539.0 -692.0 3262.0
-1528.0 -692.0 3262.0
-1517.0 -692.0 3262.0
-1477.0 -679.0 3201.0
-1466.0 -679.0 3201.0
-1442.0 -672.0 3172.0
-1419.0 -666.0 3143.0
-1395.0 -660.0 3115.0
-1372.0 -654.0 3087.0
-1349.0 -649.0 3059.0
-1328.0 -643.0 3033.0
-1306.0 -637.0 3006.0
-1284.0 -632.0 2980.0
-1274.0 -632.0 2980.0
-1264.0 -632.0 2980.0
-1243.0 -626.0 2955.0
-1223.0 -621.0 2930.0
-1213.0 -621.0 2930.0
-1193.0 -616.0 2905.0
-1173.0 -611.0 2881.0
-1163.0 -611.0 2881.0
-1144.0 -606.0 2857.0
-1134.0 -606.0 2857.0
-411.0 -221.0 1044.0
-405.0 -220.0 1037.0
-399.0 -219.0 1031.0
-393.0 -217.0 1025.0
-390.0 -217.0 1025.0
-385.0 -217.0 1022.0
-381.0 -217.0 1022.0
-378.0 -217.0 1022.0
-372.0 -215.0 1016.0
-365.0 -213.0 1004.0
-360.0 -212.0 1001.0
-357.0 -212.0 1001.0
-352.0 -212.0 998.0
-349.0 -212.0 998.0
-345.0 -212.0 998.0
-341.0 -211.0 995.0
-338.0 -211.0 995.0
-334.0 -211.0 995.0
-331.0 -211.0 995.0
-329.0 -212.0 998.0
-325.0 -212.0 998.0
-323.0 -212.0 1001.0
-319.0 -212.0 1001.0
-316.0 -212.0 1001.0
-313.0 -212.0 1001.0
-309.0 -212.0 1001.0
-306.0 -212.0 1001.0
-302.0 -212.0 1001.0
-299.0 -212.0 1001.0
-295.0 -212.0 998.0
-292.0 -212.0 1001.0
-289.0 -212.0 1001.0
-270.0 -201.0 946.0
-267.0 -201.0 949.0
-265.0 -202.0 952.0
-262.0 -202.0 954.0
-259.0 -202.0 954.0
-256.0 -202.0 954.0
-253.0 -202.0 954.0
-249.0 -202.0 954.0
-246.0 -202.0 954.0
-243.0 -202.0 954.0
-240.0 -202.0 954.0
-236.0 -202.0 954.0
-233.0 -202.0 952.0
-227.0 -200.0 944.0
-223.0 -199.0 939.0
-218.0 -198.0 933.0
-214.0 -197.0 928.0
-210.0 -196.0 923.0
-207.0 -196.0 923.0
-203.0 -195.0 921.0
-200.0 -195.0 919.0
-196.0 -194.0 916.0
-192.0 -194.0 914.0
-189.0 -194.0 914.0
-186.0 -194.0 914.0
-183.0 -194.0 914.0
-180.0 -194.0 914.0
-177.0 -194.0 914.0
-174.0 -194.0 914.0
-170.0 -193.0 911.0
-167.0 -193.0 911.0
-164.0 -193.0 911.0
-161.0 -193.0 911.0
-157.0 -193.0 909.0
-155.0 -193.0 911.0
-151.0 -193.0 911.0
-148.0 -193.0 911.0
-145.0 -193.0 911.0
-142.0 -193.0 911.0
-139.0 -193.0 911.0
-136.0 -193.0 911.0
-133.0 -193.0 911.0
-130.0 -193.0 911.0
-127.0 -194.0 914.0
-124.0 -194.0 914.0
-121.0 -194.0 914.0
-118.0 -194.0 916.0
-115.0 -194.0 916.0
-112.0 -195.0 919.0
-109.0 -195.0 919.0
-106.0 -195.0 921.0
-103.0 -195.0 921.0
-100.0 -196.0 923.0
-97.0 -196.0 926.0
-94.0 -197.0 928.0
-92.0 -197.0 931.0
-89.0 -198.0 933.0
-86.0 -198.0 936.0
-83.0 -199.0 941.0
-80.0 -200.0 944.0
-77.0 -201.0 946.0
-74.0 -202.0 952.0
-71.0 -202.0 952.0
-68.0 -202.0 952.0
-65.0 -202.0 952.0
-61.0 -202.0 952.0
-58.0 -202.0 954.0
-55.0 -202.0 954.0
-52.0 -204.0 962.0
-49.0 -206.0 970.0
-46.0 -206.0 970.0
-43.0 -206.0 970.0
-39.0 -205.0 965.0
-36.0 -203.0 959.0
-32.0 -203.0 957.0
-29.0 -203.0 957.0
-26.0 -202.0 954.0
-23.0 -202.0 954.0
-19.0 -202.0 954.0
-16.0 -202.0 954.0
-13.0 -202.0 954.0
-10.0 -202.0 954.0
-6.0 -203.0 957.0
-3.0 -203.0 959.0
0.0 -203.0 959.0
3.0 -203.0 959.0
7.0 -204.0 962.0
10.0 -204.0 962.0
13.0 -205.0 965.0
16.0 -205.0 968.0
20.0 -206.0 970.0
23.0 -206.0 973.0
26.0 -206.0 973.0
30.0 -207.0 976.0
33.0 -208.0 981.0
37.0 -208.0 981.0
40.0 -209.0 984.0
43.0 -209.0 984.0
47.0 -210.0 990.0
51.0 -211.0 995.0
54.0 -212.0 1001.0
58.0 -213.0 1004.0
62.0 -213.0 1007.0
65.0 -215.0 1013.0
69.0 -215.0 1016.0
73.0 -216.0 1019.0
76.0 -215.0 1016.0
79.0 -215.0 1016.0
83.0 -215.0 1016.0
0.0 0.0 0.0
136.0 -327.0 1542.0
142.0 -328.0 1549.0
147.0 -328.0 1549.0
152.0 -327.0 1542.0
157.0 -327.0 1542.0
161.0 -324.0 1529.0
165.0 -323.0 1522.0
170.0 -323.0 1522.0
175.0 -321.0 1515.0
180.0 -321.0 1515.0
184.0 -320.0 1509.0
189.0 -318.0 1502.0
193.0 -317.0 1496.0
198.0 -317.0 1496.0
202.0 -316.0 1489.0
206.0 -314.0 1483.0
211.0 -314.0 1483.0
216.0 -313.0 1477.0
219.0 -312.0 1470.0
224.0 -312.0 1470.0
229.0 -310.0 1464.0
233.0 -310.0 1464.0
238.0 -310.0 1464.0
242.0 -309.0 1458.0
246.0 -308.0 1452.0
250.0 -307.0 1446.0
255.0 -307.0 1446.0
259.0 -305.0 1440.0
264.0 -305.0 1440.0
269.0 -305.0 1440.0
271.0 -303.0 1428.0
275.0 -301.0 1422.0
280.0 -301.0 1422.0
285.0 -301.0 1422.0
288.0 -300.0 1416.0
292.0 -299.0 1410.0
294.0 -297.0 1399.0
299.0 -297.0 1399.0
303.0 -295.0 1393.0
307.0 -295.0 1393.0
311.0 -294.0 1388.0
316.0 -294.0 1388.0
318.0 -292.0 1376.0
321.0 -291.0 1371.0
326.0 -291.0 1371.0
329.0 -290.0 1366.0
332.0 -288.0 1360.0
336.0 -287.0 1355.0
339.0 -286.0 1350.0
344.0 -286.0 1350.0
348.0 -286.0 1350.0
351.0 -285.0 1344.0
356.0 -285.0 1344.0
358.0 -283.0 1334.0
361.0 -282.0 1329.0
365.0 -282.0 1329.0
370.0 -282.0 1329.0
373.0 -281.0 1324.0
377.0 -281.0 1324.0
379.0 -279.0 1314.0
382.0 -278.0 1309.0
385.0 -276.0 1304.0
389.0 -276.0 1304.0
392.0 -275.0 1299.0
395.0 -274.0 1294.0
398.0 -273.0 1289.0
402.0 -273.0 1289.0
405.0 -272.0 1284.0
408.0 -271.0 1280.0
413.0 -271.0 1280.0
414.0 -269.0 1270.0
418.0 -269.0 1270.0
421.0 -268.0 1265.0
425.0 -268.0 1265.0
428.0 -267.0 1261.0
430.0 -266.0 1256.0
433.0 -265.0 1252.0
436.0 -264.0 1247.0
440.0 -264.0 1247.0
444.0 -264.0 1247.0
445.0 -262.0 1238.0
448.0 -262.0 1234.0
450.0 -261.0 1229.0
455.0 -261.0 1229.0
456.0 -259.0 1221.0
460.0 -259.0 1221.0
462.0 -258.0 1216.0
466.0 -258.0 1216.0
469.0 -257.0 1212.0
473.0 -257.0 1212.0
476.0 -256.0 1208.0
476.0 -254.0 1200.0
481.0 -254.0 1200.0
483.0 -253.0 1195.0
487.0 -253.0 1195.0
486.0 -251.0 1183.0
488.0 -250.0 1179.0
492.0 -250.0 1179.0
494.0 -249.0 1175.0
497.0 -248.0 1171.0
502.0 -249.0 1175.0
505.0 -248.0 1171.0
509.0 -248.0 1171.0
509.0 -247.0 1163.0
513.0 -247.0 1163.0
515.0 -246.0 1159.0
517.0 -245.0 1155.0
519.0 -244.0 1151.0
523.0 -244.0 1151.0
526.0 -243.0 1148.0
528.0 -243.0 1144.0
530.0 -242.0 1140.0
531.0 -240.0 1133.0
534.0 -240.0 1133.0
538.0 -240.0 1133.0
540.0 -239.0 1129.0
542.0 -239.0 1125.0
544.0 -238.0 1122.0
548.0 -238.0 1122.0
552.0 -238.0 1122.0
554.0 -237.0 1118.0
556.0 -236.0 1114.0
559.0 -236.0 1114.0
562.0 -236.0 1111.0
563.0 -235.0 1107.0
566.0 -234.0 1104.0
569.0 -234.0 1104.0
571.0 -233.0 1100.0
575.0 -233.0 1100.0
579.0 -233.0 1100.0
581.0 -233.0 1097.0
584.0 -233.0 1097.0
588.0 -233.0 1097.0
592.0 -233.0 1097.0
0.0 0.0 0.0
0.0 0.0 0.0
0.0 0.0 0.0
0.0 0.0 0.0
0.0 0.0 0.0
-1915.0 -760.0 3640.0
-1882.0 -752.0 3602.0
-1832.0 -736.0 3528.0
-1839.0 -744.0 3565.0
-1790.0 -729.0 3493.0
-1760.0 -722.0 3458.0
-1731.0 -715.0 3423.0
-1737.0 -722.0 3458.0
-1708.0 -715.0 3423.0
-1680.0 -708.0 3390.0
-1652.0 -701.0 3357.0
-1624.0 -694.0 3324.0
-1598.0 -687.0 3293.0
-1587.0 -687.0 3293.0
-1576.0 -687.0 3293.0
-1550.0 -681.0 3262.0
-1539.0 -681.0 3262.0
-1513.0 -674.0 3231.0
-1502.0 -674.0 3231.0
-1477.0 -668.0 3201.0
-1466.0 -668.0 3201.0
-1442.0 -662.0 3172.0
-1419.0 -656.0 3143.0
-1395.0 -650.0 3115.0
-1385.0 -650.0 3115.0
-1349.0 -639.0 3059.0
-1328.0 -633.0 3033.0
-1317.0 -633.0 3033.0
-1284.0 -622.0 2980.0
-1274.0 -622.0 2980.0
-1264.0 -622.0 2980.0
-1243.0 -617.0 2955.0
-1233.0 -617.0 2955.0
-1213.0 -612.0 2930.0
-1193.0 -606.0 2905.0
-1163.0 -596.0 2857.0
-1154.0 -596.0 2857.0
-1144.0 -596.0 2857.0
-1134.0 -596.0 2857.0
-408.0 -216.0 1037.0
-402.0 -215.0 1031.0
-398.0 -215.0 1028.0
-393.0 -214.0 1025.0
-388.0 -213.0 1022.0
-385.0 -213.0 1022.0
-380.0 -213.0 1019.0
-376.0 -212.0 1016.0
-371.0 -211.0 1013.0
-365.0 -210.0 1004.0
-359.0 -208.0 998.0
-356.0 -208.0 998.0
-351.0 -208.0 995.0
-347.0 -207.0 993.0
-344.0 -207.0 993.0
-340.0 -207.0 993.0
-338.0 -208.0 995.0
-334.0 -208.0 995.0
-330.0 -207.0 993.0
-328.0 -208.0 995.0
-324.0 -208.0 995.0
-322.0 -208.0 998.0
-318.0 -208.0 998.0
-316.0 -209.0 1001.0
-313.0 -209.0 1001.0
-308.0 -208.0 998.0
-305.0 -208.0 998.0
-301.0 -208.0 998.0
-298.0 -208.0 998.0
-295.0 -208.0 998.0
-291.0 -208.0 998.0
-274.0 -198.0 949.0
-271.0 -198.0 949.0
-268.0 -199.0 952.0
-265.0 -199.0 954.0
-262.0 -199.0 954.0
-259.0 -199.0 954.0
-256.0 -199.0 954.0
-253.0 -199.0 954.0
-249.0 -199.0 954.0
-246.0 -199.0 954.0
-242.0 -198.0 949.0
-238.0 -198.0 949.0
-234.0 -197.0 946.0
-231.0 -197.0 946.0
-226.0 -196.0 939.0
-222.0 -195.0 936.0
-218.0 -194.0 931.0
-213.0 -193.0 923.0
-209.0 -192.0 921.0
-206.0 -192.0 921.0
-203.0 -192.0 919.0
-199.0 -191.0 916.0
-195.0 -191.0 914.0
-192.0 -191.0 914.0
-189.0 -191.0 914.0
-186.0 -191.0 914.0
-183.0 -191.0 914.0
-179.0 -190.0 911.0
-176.0 -190.0 911.0
-173.0 -190.0 911.0
-170.0 -190.0 911.0
-167.0 -190.0 911.0
-163.0 -190.0 909.0
-160.0 -190.0 909.0
-157.0 -190.0 909.0
-155.0 -190.0 911.0
-151.0 -190.0 911.0
-148.0 -190.0 911.0
-145.0 -190.0 911.0
-142.0 -190.0 911.0
-139.0 -190.0 911.0
-136.0 -190.0 911.0
-133.0 -190.0 911.0
-130.0 -190.0 911.0
-127.0 -191.0 914.0
-124.0 -191.0 914.0
-121.0 -191.0 914.0
-118.0 -191.0 916.0
-115.0 -191.0 916.0
-112.0 -192.0 919.0
-109.0 -192.0 919.0
-106.0 -192.0 921.0
-103.0 -193.0 923.0
-100.0 -193.0 923.0
-98.0 -194.0 928.0
-95.0 -194.0 931.0
-92.0 -195.0 933.0
-89.0 -195.0 936.0
-86.0 -196.0 939.0
-83.0 -197.0 944.0
-81.0 -198.0 949.0
-78.0 -199.0 952.0
-74.0 -199.0 952.0
-71.0 -199.0 954.0
-68.0 -199.0 954.0
-65.0 -199.0 954.0
-62.0 -199.0 954.0
-58.0 -199.0 954.0
-55.0 -200.0 957.0
-52.0 -201.0 965.0
-49.0 -202.0 970.0
-46.0 -203.0 973.0
-43.0 -203.0 973.0
-40.0 -202.0 970.0
-36.0 -201.0 962.0
-33.0 -200.0 959.0
-29.0 -200.0 957.0
-26.0 -199.0 954.0
-23.0 -199.0 954.0
-19.0 -199.0 954.0
-16.0 -199.0 954.0
-13.0 -199.0 954.0
-10.0 -199.0 954.0
-6.0 -200.0 957.0
-3.0 -200.0 959.0
0.0 -200.0 959.0
3.0 -200.0 959.0
7.0 -201.0 962.0
10.0 -201.0 965.0
13.0 -202.0 968.0
16.0 -202.0 970.0
20.0 -202.0 970.0
23.0 -203.0 973.0
26.0 -203.0 973.0
30.0 -204.0 976.0
33.0 -204.0 978.0
37.0 -205.0 981.0
40.0 -205.0 984.0
43.0 -205.0 984.0
47.0 -207.0 990.0
51.0 -207.0 993.0
54.0 -208.0 998.0
58.0 -209.0 1001.0
61.0 -210.0 1004.0
65.0 -210.0 1007.0
69.0 -211.0 1010.0
72.0 -211.0 1013.0
76.0 -212.0 1016.0
79.0 -212.0 1016.0
0.0 0.0 0.0
0.0 0.0 0.0
0.0 0.0 0.0
143.0 -325.0 1556.0
148.0 -325.0 1556.0
152.0 -322.0 1542.0
156.0 -321.0 1536.0
161.0 -319.0 1529.0
165.0 -318.0 1522.0
170.0 -318.0 1522.0
175.0 -316.0 1515.0
180.0 -316.0 1515.0
184.0 -315.0 1509.0
189.0 -314.0 1502.0
193.0 -312.0 1496.0
198.0 -312.0 1496.0
202.0 -311.0 1489.0
207.0 -311.0 1489.0
211.0 -310.0 1483.0
216.0 -308.0 1477.0
219.0 -307.0 1470.0
224.0 -307.0 1470.0
229.0 -306.0 1464.0
233.0 -306.0 1464.0
238.0 -306.0 1464.0
242.0 -304.0 1458.0
246.0 -303.0 1452.0
250.0 -302.0 1446.0
254.0 -301.0 1440.0
259.0 -301.0 1440.0
264.0 -301.0 1440.0
268.0 -299.0 1434.0
270.0 -297.0 1422.0
275.0 -297.0 1422.0
280.0 -297.0 1422.0
284.0 -296.0 1416.0
288.0 -296.0 1416.0
292.0 -294.0 1410.0
294.0 -292.0 1399.0
298.0 -291.0 1393.0
303.0 -291.0 1393.0
306.0 -290.0 1388.0
311.0 -290.0 1388.0
316.0 -290.0 1388.0
318.0 -287.0 1376.0
321.0 -286.0 1371.0
326.0 -286.0 1371.0
329.0 -285.0 1366.0
332.0 -284.0 1360.0
336.0 -283.0 1355.0
339.0 -282.0 1350.0
344.0 -282.0 1350.0
348.0 -282.0 1350.0
351.0 -281.0 1344.0
356.0 -281.0 1344.0
359.0 -280.0 1339.0
361.0 -277.0 1329.0
365.0 -277.0 1329.0
368.0 -276.0 1324.0
373.0 -276.0 1324.0
377.0 -276.0 1324.0
379.0 -274.0 1314.0
382.0 -273.0 1309.0
385.0 -272.0 1304.0
389.0 -272.0 1304.0
392.0 -271.0 1299.0
395.0 -270.0 1294.0
398.0 -269.0 1289.0
402.0 -269.0 1289.0
405.0 -268.0 1284.0
408.0 -267.0 1280.0
413.0 -267.0 1280.0
414.0 -265.0 1270.0
418.0 -265.0 1270.0
421.0 -264.0 1265.0
425.0 -264.0 1265.0
428.0 -263.0 1261.0
430.0 -262.0 1256.0
433.0 -261.0 1252.0
436.0 -260.0 1247.0
440.0 -260.0 1247.0
443.0 -259.0 1243.0
445.0 -258.0 1238.0
448.0 -258.0 1234.0
450.0 -257.0 1229.0
455.0 -257.0 1229.0
456.0 -255.0 1221.0
458.0 -254.0 1216.0
462.0 -254.0 1216.0
466.0 -254.0 1216.0
469.0 -253.0 1212.0
473.0 -253.0 1212.0
476.0 -252.0 1208.0
474.0 -249.0 1195.0
479.0 -249.0 1195.0
483.0 -249.0 1195.0
485.0 -249.0 1191.0
486.0 -247.0 1183.0
488.0 -246.0 1179.0
492.0 -246.0 1179.0
494.0 -245.0 1175.0
498.0 -245.0 1175.0
502.0 -245.0 1175.0
505.0 -244.0 1171.0
509.0 -244.0 1171.0
511.0 -244.0 1167.0
513.0 -243.0 1163.0
515.0 -242.0 1159.0
517.0 -241.0 1155.0
519.0 -240.0 1151.0
522.0 -240.0 1148.0
524.0 -239.0 1144.0
526.0 -238.0 1140.0
530.0 -238.0 1140.0
532.0 -237.0 1136.0
534.0 -237.0 1133.0
536.0 -236.0 1129.0
538.0 -235.0 1125.0
541.0 -234.0 1122.0
544.0 -234.0 1122.0
548.0 -234.0 1122.0
552.0 -234.0 1122.0
554.0 -233.0 1118.0
556.0 -233.0 1114.0
559.0 -233.0 1114.0
562.0 -232.0 1111.0
563.0 -231.0 1107.0
566.0 -230.0 1104.0
567.0 -230.0 1100.0
571.0 -230.0 1100.0
575.0 -230.0 1100.0
579.0 -230.0 1100.0
582.0 -230.0 1100.0
584.0 -229.0 1097.0
588.0 -229.0 1097.0
592.0 -229.0 1097.0
0.0 0.0 0.0
0.0 0.0 0.0
0.0 0.0 0.0
0.0 0.0 0.0
0.0 0.0 0.0
-1875.0 -733.0 3565.0
-1863.0 -733.0 3565.0
-1851.0 -733.0 3565.0
-1820.0 -725.0 3528.0
-1790.0 -718.0 3493.0
-1760.0 -711.0 3458.0
-1731.0 -703.0 3423.0
-1719.0 -703.0 3423.0
-1691.0 -697.0 3390.0
-1680.0 -697.0 3390.0
-1636.0 -683.0 3324.0
-1624.0 -683.0 3324.0
-1613.0 -683.0 3324.0
-1587.0 -677.0 3293.0
-1576.0 -677.0 3293.0
-1550.0 -670.0 3262.0
-1539.0 -670.0 3262.0
-1513.0 -664.0 3231.0
-1502.0 -664.0 3231.0
-1477.0 -658.0 3201.0
-1453.0 -652.0 3172.0
-1442.0 -652.0 3172.0
-1419.0 -646.0 3143.0
-1395.0 -640.0 3115.0
-1372.0 -634.0 3087.0
-1362.0 -634.0 3087.0
-1328.0 -623.0 3033.0
-1317.0 -623.0 3033.0
-1307.0 -623.0 3033.0
-1285.0 -618.0 3006.0
-1275.0 -618.0 3006.0
-1254.0 -612.0 2980.0
-1223.0 -602.0 2930.0
-1213.0 -602.0 2930.0
-1193.0 -597.0 2905.0
-1163.0 -587.0 2857.0
-1154.0 -587.0 2857.0
-1144.0 -587.0 2857.0
-1134.0 -587.0 2857.0
-407.0 -212.0 1034.0
-401.0 -211.0 1028.0
-397.0 -211.0 1025.0
-392.0 -210.0 1022.0
-387.0 -209.0 1019.0
-383.0 -209.0 1016.0
-379.0 -209.0 1016.0
-375.0 -208.0 1013.0
-370.0 -208.0 1010.0
-363.0 -206.0 1001.0
-359.0 -205.0 998.0
-355.0 -204.0 995.0
-350.0 -204.0 993.0
-346.0 -203.0 990.0
-343.0 -203.0 990.0
-338.0 -203.0 987.0
-336.0 -203.0 990.0
-333.0 -203.0 990.0
-329.0 -203.0 990.0
-327.0 -204.0 993.0
-323.0 -204.0 993.0
-322.0 -205.0 998.0
-318.0 -205.0 998.0
-316.0 -206.0 1001.0
-313.0 -206.0 1001.0
-308.0 -205.0 998.0
-305.0 -205.0 998.0
-301.0 -205.0 998.0
-298.0 -205.0 998.0
-294.0 -204.0 995.0
-290.0 -204.0 995.0
-274.0 -195.0 949.0
-271.0 -195.0 949.0
-268.0 -196.0 952.0
-265.0 -196.0 954.0
-262.0 -196.0 954.0
-259.0 -196.0 954.0
-256.0 -196.0 954.0
-253.0 -196.0 954.0
-249.0 -196.0 954.0
-244.0 -194.0 946.0
-241.0 -194.0 946.0
-237.0 -194.0 944.0
-234.0 -194.0 944.0
-229.0 -193.0 939.0
-226.0 -192.0 936.0
-222.0 -192.0 933.0
-217.0 -191.0 928.0
-213.0 -190.0 923.0
-209.0 -189.0 921.0
-206.0 -189.0 921.0
-202.0 -188.0 916.0
-199.0 -188.0 914.0
-195.0 -188.0 914.0
-192.0 -188.0 914.0
-189.0 -187.0 911.0
-185.0 -187.0 911.0
-182.0 -187.0 911.0
-179.0 -187.0 911.0
-176.0 -187.0 911.0
-173.0 -187.0 911.0
-170.0 -187.0 911.0
-167.0 -187.0 911.0
-164.0 -187.0 911.0
-160.0 -187.0 909.0
-157.0 -187.0 909.0
-154.0 -187.0 909.0
-151.0 -187.0 911.0
-148.0 -187.0 911.0
-145.0 -187.0 911.0
-142.0 -187.0 911.0
-139.0 -187.0 911.0
-136.0 -187.0 911.0
-133.0 -187.0 911.0
-130.0 -187.0 911.0
-127.0 -188.0 914.0
-124.0 -188.0 914.0
-121.0 -188.0 914.0
-118.0 -188.0 916.0
-115.0 -189.0 919.0
-112.0 -189.0 919.0
-109.0 -189.0 921.0
-106.0 -189.0 921.0
-103.0 -190.0 923.0
-101.0 -190.0 926.0
-98.0 -191.0 928.0
-95.0 -192.0 933.0
-92.0 -192.0 933.0
-89.0 -192.0 936.0
-86.0 -193.0 941.0
-83.0 -194.0 944.0
-81.0 -195.0 949.0
-78.0 -196.0 952.0
-74.0 -196.0 954.0
-71.0 -197.0 957.0
-68.0 -197.0 959.0
-65.0 -197.0 959.0
-62.0 -197.0 959.0
-58.0 -197.0 957.0
-55.0 -197.0 959.0
-52.0 -198.0 965.0
-49.0 -199.0 970.0
-46.0 -200.0 973.0
-43.0 -201.0 976.0
-40.0 -200.0 973.0
-36.0 -199.0 970.0
-33.0 -198.0 962.0
-29.0 -197.0 957.0
-26.0 -196.0 954.0
-23.0 -196.0 954.0
-19.0 -196.0 954.0
-16.0 -196.0 954.0
-13.0 -196.0 954.0
-10.0 -197.0 957.0
-7.0 -197.0 959.0
-3.0 -197.0 959.0
0.0 -197.0 959.0
3.0 -198.0 962.0
7.0 -198.0 962.0
10.0 -199.0 968.0
13.0 -199.0 968.0
16.0 -199.0 970.0
20.0 -200.0 973.0
23.0 -200.0 973.0
26.0 -200.0 973.0
30.0 -201.0 976.0
33.0 -201.0 978.0
37.0 -202.0 981.0
40.0 -202.0 984.0
43.0 -202.0 984.0
47.0 -203.0 987.0
51.0 -204.0 993.0
54.0 -204.0 995.0
58.0 -205.0 998.0
61.0 -206.0 1001.0
65.0 -206.0 1004.0
68.0 -206.0 1004.0
72.0 -207.0 1007.0
75.0 -208.0 1010.0
79.0 -208.0 1013.0
0.0 0.0 0.0
0.0 0.0 0.0
0.0 0.0 0.0
0.0 0.0 0.0
0.0 0.0 0.0
151.0 -316.0 1536.0
156.0 -316.0 1536.0
160.0 -313.0 1522.0
165.0 -313.0 1522.0
170.0 -313.0 1522.0
175.0 -311.0 1515.0
180.0 -311.0 1515.0
184.0 -310.0 1509.0
189.0 -309.0 1502.0
194.0 -309.0 1502.0
198.0 -307.0 1496.0
202.0 -306.0 1489.0
207.0 -306.0 1489.0
211.0 -305.0 1483.0
216.0 -303.0 1477.0
219.0 -302.0 1470.0
224.0 -302.0 1470.0
229.0 -301.0 1464.0
233.0 -301.0 1464.0
238.0 -301.0 1464.0
242.0 -300.0 1458.0
246.0 -298.0 1452.0
250.0 -297.0 1446.0
254.0 -296.0 1440.0
259.0 -296.0 1440.0
264.0 -296.0 1440.0
268.0 -295.0 1434.0
270.0 -292.0 1422.0
275.0 -292.0 1422.0
280.0 -292.0 1422.0
284.0 -291.0 1416.0
288.0 -291.0 1416.0
291.0 -288.0 1404.0
294.0 -287.0 1399.0
299.0 -287.0 1399.0
303.0 -286.0 1393.0
307.0 -286.0 1393.0
311.0 -285.0 1388.0
316.0 -285.0 1388.0
318.0 -283.0 1376.0
321.0 -282.0 1371.0
324.0 -281.0 1366.0
329.0 -281.0 1366.0
332.0 -279.0 1360.0
336.0 -278.0 1355.0
339.0 -277.0 1350.0
344.0 -277.0 1350.0
348.0 -277.0 1350.0
351.0 -276.0 1344.0
354.0 -275.0 1339.0
359.0 -275.0 1339.0
361.0 -273.0 1329.0
365.0 -273.0 1329.0
368.0 -272.0 1324.0
373.0 -272.0 1324.0
376.0 -271.0 1319.0
379.0 -270.0 1314.0
382.0 -269.0 1309.0
386.0 -269.0 1309.0
389.0 -268.0 1304.0
392.0 -267.0 1299.0
395.0 -266.0 1294.0
398.0 -265.0 1289.0
402.0 -265.0 1289.0
405.0 -264.0 1284.0
408.0 -263.0 1280.0
413.0 -263.0 1280.0
415.0 -262.0 1275.0
418.0 -261.0 1270.0
422.0 -261.0 1270.0
425.0 -260.0 1265.0
426.0 -258.0 1256.0
429.0 -257.0 1252.0
433.0 -257.0 1252.0
436.0 -256.0 1247.0
440.0 -256.0 1247.0
444.0 -256.0 1247.0
445.0 -254.0 1238.0
448.0 -254.0 1234.0
450.0 -253.0 1229.0
453.0 -252.0 1225.0
456.0 -251.0 1221.0
458.0 -250.0 1216.0
462.0 -250.0 1216.0
465.0 -249.0 1212.0
469.0 -249.0 1212.0
473.0 -249.0 1212.0
476.0 -248.0 1208.0
478.0 -247.0 1204.0
479.0 -246.0 1195.0
483.0 -246.0 1195.0
485.0 -245.0 1191.0
484.0 -242.0 1179.0
488.0 -242.0 1179.0
490.0 -241.0 1175.0
494.0 -241.0 1175.0
498.0 -241.0 1175.0
502.0 -241.0 1175.0
505.0 -241.0 1171.0
507.0 -240.0 1167.0
509.0 -239.0 1163.0
513.0 -239.0 1163.0
515.0 -238.0 1159.0
517.0 -237.0 1155.0
519.0 -237.0 1151.0
522.0 -236.0 1148.0
526.0 -236.0 1148.0
526.0 -234.0 1140.0
530.0 -234.0 1140.0
532.0 -233.0 1136.0
534.0 -233.0 1133.0
538.0 -233.0 1133.0
538.0 -231.0 1125.0
541.0 -231.0 1122.0
544.0 -231.0 1122.0
546.0 -230.0 1118.0
552.0 -231.0 1122.0
554.0 -230.0 1118.0
556.0 -229.0 1114.0
559.0 -229.0 1114.0
560.0 -227.0 1107.0
562.0 -227.0 1104.0
566.0 -227.0 1104.0
569.0 -227.0 1104.0
573.0 -227.0 1104.0
575.0 -226.0 1100.0
579.0 -226.0 1100.0
581.0 -225.0 1097.0
584.0 -225.0 1097.0
588.0 -225.0 1097.0
592.0 -225.0 1097.0
0.0 0.0 0.0
0.0 0.0 0.0
0.0 0.0 0.0
0.0 0.0 0.0
0.0 0.0 0.0
0.0 0.0 0.0
-1863.0 -721.0 3565.0
-1851.0 -721.0 3565.0
-1839.0 -721.0 3565.0
-1790.0 -706.0 3493.0
-1760.0 -699.0 3458.0
-1748.0 -699.0 3458.0
-1719.0 -692.0 3423.0
-1708.0 -692.0 3423.0
-1680.0 -686.0 3390.0
-1652.0 -679.0 3357.0
-1624.0 -672.0 3324.0
-1613.0 -672.0 3324.0
-1587.0 -666.0 3293.0
-1576.0 -666.0 3293.0
-1550.0 -660.0 3262.0
-1539.0 -660.0 3262.0
-1513.0 -653.0 3231.0
-1502.0 -653.0 3231.0
-1477.0 -647.0 3201.0
-1453.0 -641.0 3172.0
-1442.0 -641.0 3172.0
-1419.0 -636.0 3143.0
-1395.0 -630.0 3115.0
-1372.0 -624.0 3087.0
-1362.0 -624.0 3087.0
-1328.0 -613.0 3033.0
-1317.0 -613.0 3033.0
-1307.0 -613.0 3033.0
-1285.0 -608.0 3006.0
-1264.0 -603.0 2980.0
-1254.0 -603.0 2980.0
-1223.0 -593.0 2930.0
-1213.0 -593.0 2930.0
-1193.0 -587.0 2905.0
-1163.0 -578.0 2857.0
-1154.0 -578.0 2857.0
-1135.0 -573.0 2834.0
-1134.0 -578.0 2857.0
-403.0 -207.0 1025.0
-400.0 -207.0 1025.0
-395.0 -207.0 1022.0
-391.0 -206.0 1019.0
-386.0 -205.0 1016.0
-382.0 -205.0 1013.0
-378.0 -205.0 1013.0
-375.0 -205.0 1013.0
-370.0 -204.0 1010.0
-363.0 -202.0 1001.0
-358.0 -201.0 995.0
-354.0 -201.0 993.0
-349.0 -200.0 990.0
-345.0 -200.0 987.0
-342.0 -200.0 987.0
-337.0 -199.0 984.0
-335.0 -200.0 987.0
-333.0 -200.0 990.0
-329.0 -200.0 990.0
-326.0 -200.0 990.0
-323.0 -201.0 993.0
-321.0 -201.0 995.0
-318.0 -202.0 998.0
-316.0 -202.0 1001.0
-313.0 -202.0 1001.0
-308.0 -202.0 998.0
-305.0 -202.0 998.0
-301.0 -202.0 998.0
-297.0 -201.0 995.0
-293.0 -201.0 993.0
-277.0 -192.0 949.0
-275.0 -193.0 952.0
-271.0 -193.0 952.0
-269.0 -193.0 954.0
-265.0 -193.0 954.0
-262.0 -193.0 954.0
-259.0 -193.0 954.0
-257.0 -194.0 957.0
-253.0 -193.0 954.0
-247.0 -191.0 946.0
-243.0 -190.0 941.0
-239.0 -190.0 941.0
-236.0 -190.0 941.0
-233.0 -190.0 941.0
-229.0 -189.0 936.0
-225.0 -189.0 933.0
-220.0 -188.0 928.0
-216.0 -187.0 923.0
-213.0 -186.0 921.0
-209.0 -186.0 919.0
-206.0 -186.0 919.0
-202.0 -185.0 916.0
-199.0 -185.0 914.0
-195.0 -185.0 914.0
-192.0 -184.0 911.0
-189.0 -184.0 911.0
-185.0 -184.0 911.0
-182.0 -184.0 911.0
-179.0 -184.0 911.0
-176.0 -184.0 911.0
-173.0 -184.0 911.0
-170.0 -184.0 911.0
-167.0 -184.0 911.0
-164.0 -184.0 911.0
-160.0 -184.0 909.0
-157.0 -184.0 909.0
-154.0 -184.0 909.0
-151.0 -184.0 909.0
-148.0 -184.0 911.0
-145.0 -184.0 911.0
-142.0 -184.0 911.0
-139.0 -184.0 911.0
-136.0 -184.0 911.0
-133.0 -184.0 911.0
-130.0 -184.0 911.0
-127.0 -185.0 914.0
-124.0 -185.0 914.0
-121.0 -185.0 914.0
-118.0 -185.0 916.0
-115.0 -186.0 919.0
-113.0 -186.0 921.0
-109.0 -186.0 921.0
-106.0 -186.0 921.0
-103.0 -187.0 923.0
-101.0 -187.0 926.0
-98.0 -188.0 931.0
-95.0 -189.0 933.0
-92.0 -189.0 936.0
-89.0 -190.0 939.0
-86.0 -190.0 941.0
-83.0 -191.0 944.0
-81.0 -192.0 949.0
-78.0 -193.0 952.0
-74.0 -193.0 954.0
-72.0 -194.0 959.0
-69.0 -195.0 962.0
-65.0 -195.0 962.0
-62.0 -195.0 965.0
-59.0 -195.0 962.0
-55.0 -195.0 962.0
-52.0 -195.0 965.0
-49.0 -196.0 970.0
-46.0 -197.0 973.0
-43.0 -197.0 976.0
-40.0 -198.0 978.0
-36.0 -197.0 976.0
-33.0 -196.0 968.0
-29.0 -194.0 959.0
-26.0 -194.0 957.0
-23.0 -193.0 954.0
-19.0 -193.0 954.0
-16.0 -193.0 954.0
-13.0 -193.0 954.0
-10.0 -194.0 957.0
-7.0 -194.0 959.0
-3.0 -195.0 962.0
0.0 -194.0 959.0
3.0 -195.0 962.0
7.0 -195.0 965.0
10.0 -196.0 970.0
13.0 -196.0 970.0
16.0 -196.0 970.0
20.0 -197.0 973.0
23.0 -197.0 973.0
26.0 -197.0 973.0
30.0 -197.0 976.0
33.0 -198.0 978.0
37.0 -198.0 981.0
40.0 -198.0 981.0
43.0 -199.0 984.0
47.0 -199.0 984.0
50.0 -200.0 990.0
54.0 -201.0 993.0
57.0 -201.0 995.0
61.0 -202.0 998.0
65.0 -202.0 1001.0
68.0 -202.0 1001.0
71.0 -202.0 1001.0
75.0 -204.0 1007.0
79.0 -204.0 1010.0
0.0 0.0 0.0
0.0 0.0 0.0
0.0 0.0 0.0
0.0 0.0 0.0
0.0 0.0 0.0
0.0 0.0 0.0
156.0 -311.0 1536.0
160.0 -308.0 1522.0
165.0 -308.0 1522.0
170.0 -308.0 1522.0
175.0 -306.0 1515.0
180.0 -306.0 1515.0
184.0 -305.0 1509.0
189.0 -304.0 1502.0
194.0 -304.0 1502.0
198.0 -303.0 1496.0
202.0 -301.0 1489.0
207.0 -301.0 1489.0
211.0 -300.0 1483.0
216.0 -299.0 1477.0
219.0 -297.0 1470.0
224.0 -297.0 1470.0
229.0 -296.0 1464.0
233.0 -296.0 1464.0
237.0 -295.0 1458.0
241.0 -294.0 1452.0
245.0 -292.0 1446.0
250.0 -292.0 1446.0
254.0 -291.0 1440.0
259.0 -291.0 1440.0
263.0 -290.0 1434.0
268.0 -290.0 1434.0
271.0 -289.0 1428.0
275.0 -288.0 1422.0
280.0 -288.0 1422.0
284.0 -286.0 1416.0
288.0 -286.0 1416.0
292.0 -285.0 1410.0
295.0 -284.0 1404.0
299.0 -283.0 1399.0
303.0 -282.0 1393.0
307.0 -282.0 1393.0
311.0 -281.0 1388.0
316.0 -281.0 1388.0
319.0 -279.0 1382.0
321.0 -277.0 1371.0
324.0 -276.0 1366.0
329.0 -276.0 1366.0
332.0 -275.0 1360.0
336.0 -274.0 1355.0
339.0 -273.0 1350.0
342.0 -272.0 1344.0
347.0 -272.0 1344.0
351.0 -272.0 1344.0
354.0 -271.0 1339.0
359.0 -271.0 1339.0
362.0 -270.0 1334.0
365.0 -269.0 1329.0
368.0 -268.0 1324.0
372.0 -267.0 1319.0
376.0 -267.0 1319.0
379.0 -266.0 1314.0
382.0 -265.0 1309.0
385.0 -264.0 1304.0
389.0 -264.0 1304.0
392.0 -263.0 1299.0
395.0 -262.0 1294.0
398.0 -261.0 1289.0
402.0 -261.0 1289.0
405.0 -260.0 1284.0
408.0 -259.0 1280.0
411.0 -258.0 1275.0
414.0 -257.0 1270.0
418.0 -257.0 1270.0
421.0 -256.0 1265.0
425.0 -256.0 1265.0
426.0 -254.0 1256.0
429.0 -253.0 1252.0
433.0 -253.0 1252.0
436.0 -252.0 1247.0
440.0 -252.0 1247.0
443.0 -251.0 1243.0
445.0 -250.0 1238.0
448.0 -250.0 1234.0
450.0 -249.0 1229.0
455.0 -249.0 1229.0
456.0 -247.0 1221.0
460.0 -247.0 1221.0
462.0 -246.0 1216.0
466.0 -246.0 1216.0
469.0 -245.0 1212.0
473.0 -245.0 1212.0
476.0 -244.0 1208.0
478.0 -243.0 1204.0
481.0 -243.0 1200.0
483.0 -242.0 1195.0
487.0 -242.0 1195.0
486.0 -239.0 1183.0
488.0 -238.0 1179.0
492.0 -238.0 1179.0
496.0 -238.0 1179.0
498.0 -238.0 1175.0
502.0 -238.0 1175.0
505.0 -237.0 1171.0
507.0 -236.0 1167.0
511.0 -236.0 1167.0
515.0 -236.0 1167.0
515.0 -234.0 1159.0
517.0 -234.0 1155.0
519.0 -233.0 1151.0
522.0 -232.0 1148.0
526.0 -232.0 1148.0
528.0 -231.0 1144.0
528.0 -230.0 1136.0
532.0 -230.0 1136.0
534.0 -229.0 1133.0
538.0 -229.0 1133.0
540.0 -228.0 1129.0
541.0 -227.0 1122.0
544.0 -227.0 1122.0
546.0 -226.0 1118.0
550.0 -226.0 1118.0
554.0 -226.0 1118.0
556.0 -225.0 1114.0
558.0 -225.0 1111.0
560.0 -224.0 1107.0
562.0 -223.0 1104.0
566.0 -223.0 1104.0
569.0 -223.0 1104.0
573.0 -223.0 1104.0
575.0 -222.0 1100.0
579.0 -222.0 1100.0
581.0 -222.0 1097.0
584.0 -222.0 1097.0
588.0 -222.0 1097.0
592.0 -222.0 1097.0
0.0 0.0 0.0
0.0 0.0 0.0
0.0 0.0 0.0
0.0 0.0 0.0
0.0 0.0 0.0
-1819.0 -688.0 3458.0
-1863.0 -709.0 3565.0
-1832.0 -702.0 3528.0
-1820.0 -702.0 3528.0
-1790.0 -695.0 3493.0
-1760.0 -688.0 3458.0
-1748.0 -688.0 3458.0
-1719.0 -681.0 3423.0
-1708.0 -681.0 3423.0
-1663.0 -668.0 3357.0
-1652.0 -668.0 3357.0
-1624.0 -661.0 3324.0
-1613.0 -661.0 3324.0
-1587.0 -655.0 3293.0
-1561.0 -649.0 3262.0
-1550.0 -649.0 3262.0
-1524.0 -643.0 3231.0
-1513.0 -643.0 3231.0
-1488.0 -637.0 3201.0
-1464.0 -631.0 3172.0
-1453.0 -631.0 3172.0
-1429.0 -625.0 3143.0
-1419.0 -625.0 3143.0
-1383.0 -614.0 3087.0
-1360.0 -609.0 3059.0
-1338.0 -603.0 3033.0
-1328.0 -603.0 3033.0
-1306.0 -598.0 3006.0
-1284.0 -593.0 2980.0
-1274.0 -593.0 2980.0
-1264.0 -593.0 2980.0
-1243.0 -588.0 2955.0
-1223.0 -583.0 2930.0
-1213.0 -583.0 2930.0
-1193.0 -578.0 2905.0
-1163.0 -568.0 2857.0
-1154.0 -568.0 2857.0
-1144.0 -568.0 2857.0
-1134.0 -568.0 2857.0
-402.0 -203.0 1022.0
-399.0 -203.0 1022.0
-394.0 -203.0 1019.0
-390.0 -202.0 1016.0
-385.0 -202.0 1013.0
-380.0 -201.0 1010.0
-377.0 -201.0 1010.0
-374.0 -201.0 1010.0
-369.0 -200.0 1007.0
-363.0 -199.0 1001.0
-357.0 -198.0 993.0
-353.0 -197.0 990.0
-348.0 -196.0 987.0
-345.0 -196.0 987.0
-341.0 -196.0 984.0
-337.0 -196.0 984.0
-334.0 -196.0 984.0
-332.0 -196.0 987.0
-328.0 -196.0 987.0
-326.0 -197.0 990.0
-323.0 -197.0 990.0
-320.0 -198.0 993.0
-317.0 -198.0 995.0
-315.0 -199.0 998.0
-312.0 -199.0 998.0
-307.0 -198.0 995.0
-304.0 -198.0 995.0
-300.0 -198.0 993.0
-297.0 -198.0 993.0
-282.0 -190.0 954.0
-278.0 -189.0 952.0
-275.0 -189.0 952.0
-271.0 -189.0 952.0
-269.0 -190.0 954.0
-265.0 -190.0 954.0
-262.0 -190.0 954.0
-260.0 -190.0 957.0
-257.0 -190.0 957.0
-253.0 -190.0 954.0
-246.0 -187.0 941.0
-242.0 -187.0 939.0
-239.0 -187.0 939.0
-236.0 -187.0 941.0
-233.0 -187.0 939.0
-228.0 -186.0 933.0
-224.0 -185.0 931.0
-220.0 -184.0 926.0
-216.0 -184.0 923.0
-212.0 -183.0 919.0
-209.0 -183.0 919.0
-205.0 -182.0 916.0
-202.0 -182.0 916.0
-199.0 -182.0 914.0
-195.0 -182.0 914.0
-192.0 -181.0 911.0
-189.0 -181.0 911.0
-185.0 -181.0 911.0
-182.0 -181.0 911.0
-179.0 -181.0 911.0
-176.0 -181.0 911.0
-173.0 -181.0 911.0
-170.0 -181.0 911.0
-167.0 -181.0 911.0
-163.0 -181.0 909.0
-160.0 -181.0 909.0
-157.0 -181.0 909.0
-154.0 -181.0 909.0
-151.0 -181.0 909.0
-148.0 -181.0 909.0
-145.0 -181.0 909.0
-142.0 -181.0 911.0
-139.0 -181.0 911.0
-136.0 -181.0 911.0
-133.0 -181.0 911.0
-130.0 -181.0 911.0
-127.0 -182.0 914.0
-124.0 -182.0 914.0
-121.0 -182.0 916.0
-118.0 -182.0 916.0
-115.0 -183.0 919.0
-113.0 -183.0 921.0
-109.0 -183.0 921.0
-106.0 -184.0 923.0
-103.0 -184.0 923.0
-101.0 -185.0 928.0
-98.0 -185.0 931.0
-95.0 -186.0 933.0
-92.0 -186.0 936.0
-89.0 -187.0 941.0
-86.0 -187.0 941.0
-83.0 -188.0 946.0
-81.0 -189.0 952.0
-78.0 -190.0 954.0
-75.0 -190.0 957.0
-72.0 -191.0 962.0
-69.0 -192.0 965.0
-66.0 -193.0 968.0
-63.0 -193.0 970.0
-59.0 -193.0 970.0
-56.0 -193.0 968.0
-52.0 -192.0 965.0
-49.0 -193.0 968.0
-46.0 -194.0 973.0
-43.0 -195.0 978.0
-40.0 -195.0 981.0
-37.0 -195.0 981.0
-33.0 -194.0 976.0
-29.0 -192.0 965.0
-26.0 -191.0 959.0
-23.0 -190.0 957.0
-19.0 -190.0 954.0
-16.0 -190.0 957.0
-13.0 -190.0 957.0
-10.0 -191.0 959.0
-7.0 -191.0 962.0
-3.0 -191.0 962.0
0.0 -191.0 962.0
3.0 -192.0 965.0
7.0 -193.0 968.0
10.0 -193.0 970.0
13.0 -194.0 973.0
17.0 -194.0 973.0
20.0 -194.0 973.0
23.0 -194.0 973.0
26.0 -194.0 976.0
30.0 -194.0 976.0
33.0 -195.0 978.0
37.0 -195.0 981.0
40.0 -195.0 981.0
43.0 -196.0 984.0
47.0 -196.0 984.0
50.0 -196.0 987.0
54.0 -197.0 990.0
57.0 -198.0 993.0
61.0 -198.0 993.0
64.0 -198.0 995.0
68.0 -198.0 995.0
71.0 -198.0 995.0
75.0 -199.0 998.0
0.0 0.0 0.0
0.0 0.0 0.0
0.0 0.0 0.0
0.0 0.0 0.0
0.0 0.0 0.0
0.0 0.0 0.0
0.0 0.0 0.0
156.0 -304.0 1529.0
160.0 -303.0 1522.0
165.0 -303.0 1522.0
170.0 -301.0 1515.0
175.0 -301.0 1515.0
180.0 -301.0 1515.0
184.0 -300.0 1509.0
189.0 -299.0 1502.0
194.0 -299.0 1502.0
198.0 -298.0 1496.0
202.0 -296.0 1489.0
207.0 -296.0 1489.0
211.0 -294.0 1477.0
216.0 -294.0 1477.0
219.0 -292.0 1470.0
224.0 -292.0 1470.0
229.0 -292.0 1470.0
233.0 -291.0 1464.0
237.0 -290.0 1458.0
241.0 -289.0 1452.0
245.0 -288.0 1446.0
250.0 -288.0 1446.0
254.0 -286.0 1440.0
258.0 -285.0 1434.0
263.0 -285.0 1434.0
267.0 -284.0 1428.0
271.0 -284.0 1428.0
275.0 -283.0 1422.0
280.0 -283.0 1422.0
284.0 -282.0 1416.0
287.0 -281.0 1410.0
292.0 -281.0 1410.0
295.0 -279.0 1404.0
299.0 -278.0 1399.0
303.0 -277.0 1393.0
307.0 -277.0 1393.0
311.0 -276.0 1388.0
316.0 -276.0 1388.0
318.0 -274.0 1376.0
321.0 -273.0 1371.0
324.0 -272.0 1366.0
329.0 -272.0 1366.0
332.0 -271.0 1360.0
336.0 -270.0 1355.0
339.0 -269.0 1350.0
342.0 -267.0 1344.0
347.0 -267.0 1344.0
351.0 -267.0 1344.0
354.0 -266.0 1339.0
359.0 -266.0 1339.0
362.0 -265.0 1334.0
365.0 -264.0 1329.0
368.0 -263.0 1324.0
373.0 -263.0 1324.0
376.0 -262.0 1319.0
379.0 -261.0 1314.0
382.0 -260.0 1309.0
385.0 -259.0 1304.0
388.0 -258.0 1299.0
392.0 -258.0 1299.0
395.0 -257.0 1294.0
398.0 -256.0 1289.0
402.0 -256.0 1289.0
405.0 -255.0 1284.0
408.0 -255.0 1280.0
413.0 -255.0 1280.0
415.0 -254.0 1275.0
418.0 -253.0 1270.0
421.0 -252.0 1265.0
424.0 -251.0 1261.0
426.0 -250.0 1256.0
430.0 -250.0 1256.0
433.0 -249.0 1252.0
436.0 -248.0 1247.0
440.0 -248.0 1247.0
443.0 -247.0 1243.0
445.0 -246.0 1238.0
450.0 -246.0 1238.0
450.0 -245.0 1229.0
455.0 -245.0 1229.0
457.0 -244.0 1225.0
460.0 -243.0 1221.0
462.0 -242.0 1216.0
466.0 -242.0 1216.0
469.0 -241.0 1212.0
473.0 -241.0 1212.0
476.0 -240.0 1208.0
478.0 -240.0 1204.0
481.0 -239.0 1200.0
483.0 -238.0 1195.0
487.0 -238.0 1195.0
489.0 -237.0 1191.0
488.0 -235.0 1179.0
492.0 -235.0 1179.0
496.0 -235.0 1179.0
498.0 -234.0 1175.0
501.0 -233.0 1171.0
505.0 -233.0 1171.0
507.0 -232.0 1167.0
511.0 -232.0 1167.0
515.0 -232.0 1167.0
515.0 -231.0 1159.0
517.0 -230.0 1155.0
519.0 -229.0 1151.0
522.0 -228.0 1148.0
526.0 -228.0 1148.0
528.0 -228.0 1144.0
528.0 -226.0 1136.0
531.0 -225.0 1133.0
533.0 -225.0 1129.0
536.0 -225.0 1129.0
540.0 -225.0 1129.0
541.0 -223.0 1122.0
543.0 -222.0 1118.0
546.0 -222.0 1118.0
550.0 -222.0 1118.0
552.0 -222.0 1114.0
556.0 -222.0 1114.0
558.0 -221.0 1111.0
560.0 -220.0 1107.0
562.0 -220.0 1104.0
566.0 -220.0 1104.0
569.0 -220.0 1104.0
573.0 -220.0 1104.0
575.0 -219.0 1100.0
579.0 -219.0 1100.0
581.0 -218.0 1097.0
584.0 -218.0 1097.0
588.0 -218.0 1097.0
590.0 -217.0 1093.0
0.0 0.0 0.0
0.0 0.0 0.0
0.0 0.0 0.0
0.0 0.0 0.0
-1849.0 -684.0 3493.0
-1837.0 -684.0 3493.0
-1825.0 -684.0 3493.0
-1814.0 -684.0 3493.0
-1802.0 -684.0 3493.0
-1790.0 -684.0 3493.0
-1760.0 -677.0 3458.0
-1731.0 -670.0 3423.0
-1703.0 -663.0 3390.0
-1691.0 -663.0 3390.0
-1680.0 -663.0 3390.0
-1668.0 -663.0 3390.0
-1640.0 -657.0 3357.0
-1645.0 -663.0 3390.0
-1587.0 -644.0 3293.0
-1561.0 -638.0 3262.0
-1535.0 -632.0 3231.0
-1524.0 -632.0 3231.0
-1499.0 -626.0 3201.0
-1475.0 -621.0 3172.0
-1451.0 -615.0 3143.0
-1440.0 -615.0 3143.0
-1429.0 -615.0 3143.0
-1419.0 -615.0 3143.0
-1370.0 -599.0 3059.0
-1360.0 -599.0 3059.0
-1338.0 -594.0 3033.0
-1339.0 -599.0 3059.0
-1317.0 -594.0 3033.0
-1284.0 -583.0 2980.0
-1274.0 -583.0 2980.0
-1264.0 -583.0 2980.0
-1243.0 -578.0 2955.0
-1223.0 -573.0 2930.0
-1213.0 -573.0 2930.0
-1193.0 -568.0 2905.0
-1173.0 -564.0 2881.0
-1163.0 -564.0 2881.0
-1144.0 -559.0 2857.0
-1144.0 -564.0 2881.0
-401.0 -199.0 1019.0
-398.0 -199.0 1019.0
-393.0 -199.0 1016.0
-388.0 -198.0 1013.0
-384.0 -198.0 1010.0
-380.0 -198.0 1010.0
-377.0 -198.0 1010.0
-372.0 -197.0 1007.0
-367.0 -196.0 1001.0
-361.0 -195.0 995.0
-356.0 -194.0 990.0
-352.0 -193.0 987.0
-347.0 -193.0 984.0
-343.0 -192.0 981.0
-340.0 -192.0 981.0
-336.0 -192.0 981.0
-332.0 -191.0 978.0
-330.0 -192.0 981.0
-327.0 -193.0 984.0
-325.0 -193.0 987.0
-322.0 -193.0 987.0
-319.0 -194.0 990.0
-317.0 -194.0 993.0
-314.0 -195.0 995.0
-311.0 -195.0 995.0
-307.0 -195.0 995.0
-303.0 -194.0 993.0
-299.0 -194.0 990.0
-296.0 -194.0 990.0
-282.0 -187.0 954.0
-278.0 -186.0 952.0
-275.0 -186.0 952.0
-271.0 -186.0 952.0
-269.0 -187.0 954.0
-265.0 -187.0 954.0
-262.0 -187.0 954.0
-259.0 -187.0 954.0
-256.0 -187.0 954.0
-252.0 -186.0 952.0
-246.0 -184.0 941.0
-242.0 -184.0 939.0
-239.0 -184.0 939.0
-236.0 -184.0 939.0
-232.0 -183.0 936.0
-227.0 -182.0 931.0
-223.0 -181.0 926.0
-219.0 -181.0 923.0
-216.0 -180.0 921.0
-211.0 -179.0 916.0
-208.0 -179.0 916.0
-205.0 -179.0 916.0
-202.0 -179.0 914.0
-199.0 -179.0 914.0
-195.0 -179.0 914.0
-192.0 -179.0 914.0
-189.0 -178.0 911.0
-185.0 -178.0 911.0
-182.0 -178.0 911.0
-179.0 -178.0 911.0
-176.0 -178.0 911.0
-173.0 -178.0 909.0
-170.0 -178.0 909.0
-167.0 -178.0 909.0
-163.0 -178.0 909.0
-160.0 -178.0 909.0
-157.0 -178.0 909.0
-154.0 -177.0 907.0
-151.0 -178.0 909.0
-148.0 -178.0 909.0
-145.0 -178.0 909.0
-142.0 -178.0 911.0
-139.0 -178.0 911.0
-136.0 -178.0 911.0
-133.0 -178.0 911.0
-130.0 -178.0 911.0
-127.0 -179.0 914.0
-124.0 -179.0 914.0
-121.0 -179.0 916.0
-118.0 -179.0 916.0
-116.0 -180.0 921.0
-113.0 -180.0 921.0
-109.0 -180.0 921.0
-106.0 -181.0 923.0
-104.0 -181.0 926.0
-101.0 -182.0 928.0
-98.0 -182.0 931.0
-95.0 -183.0 933.0
-92.0 -184.0 939.0
-89.0 -184.0 941.0
-86.0 -184.0 941.0
-83.0 -185.0 946.0
-81.0 -186.0 952.0
-78.0 -187.0 954.0
-75.0 -187.0 957.0
-72.0 -188.0 962.0
-69.0 -189.0 965.0
-66.0 -190.0 970.0
-63.0 -190.0 973.0
-59.0 -190.0 973.0
-56.0 -190.0 973.0
-53.0 -189.0 968.0
-49.0 -189.0 968.0
-46.0 -190.0 973.0
-43.0 -191.0 978.0
-40.0 -192.0 981.0
-37.0 -192.0 981.0
-33.0 -192.0 981.0
-30.0 -189.0 968.0
-26.0 -188.0 962.0
-23.0 -188.0 959.0
-19.0 -187.0 957.0
-16.0 -187.0 957.0
-13.0 -188.0 959.0
-10.0 -188.0 962.0
-7.0 -189.0 965.0
-3.0 -189.0 965.0
0.0 -189.0 965.0
3.0 -189.0 968.0
7.0 -190.0 970.0
10.0 -190.0 973.0
13.0 -190.0 973.0
17.0 -190.0 973.0
20.0 -190.0 973.0
23.0 -191.0 976.0
26.0 -191.0 976.0
30.0 -191.0 978.0
33.0 -191.0 978.0
37.0 -192.0 981.0
40.0 -193.0 984.0
43.0 -193.0 984.0
47.0 -193.0 984.0
50.0 -193.0 987.0
54.0 -193.0 987.0
57.0 -194.0 990.0
60.0 -194.0 990.0
64.0 -194.0 993.0
67.0 -194.0 993.0
71.0 -195.0 995.0
75.0 -195.0 998.0
0.0 0.0 0.0
0.0 0.0 0.0
0.0 0.0 0.0
0.0 0.0 0.0
0.0 0.0 0.0
0.0 0.0 0.0
0.0 0.0 0.0
155.0 -298.0 1522.0
160.0 -298.0 1522.0
165.0 -298.0 1522.0
170.0 -296.0 1515.0
175.0 -296.0 1515.0
179.0 -295.0 1509.0
183.0 -294.0 1502.0
189.0 -294.0 1502.0
193.0 -293.0 1496.0
198.0 -293.0 1496.0
202.0 -291.0 1489.0
206.0 -290.0 1483.0
211.0 -289.0 1477.0
216.0 -289.0 1477.0
219.0 -288.0 1470.0
224.0 -288.0 1470.0
229.0 -286.0 1464.0
233.0 -286.0 1464.0
237.0 -285.0 1458.0
241.0 -284.0 1452.0
245.0 -283.0 1446.0
250.0 -283.0 1446.0
254.0 -282.0 1440.0
259.0 -282.0 1440.0
263.0 -281.0 1434.0
267.0 -279.0 1428.0
271.0 -279.0 1428.0
275.0 -278.0 1422.0
280.0 -278.0 1422.0
284.0 -277.0 1416.0
287.0 -276.0 1410.0
291.0 -275.0 1404.0
295.0 -275.0 1404.0
299.0 -274.0 1399.0
304.0 -274.0 1399.0
307.0 -273.0 1393.0
311.0 -272.0 1388.0
316.0 -272.0 1388.0
318.0 -269.0 1376.0
321.0 -268.0 1371.0
324.0 -267.0 1366.0
328.0 -266.0 1360.0
332.0 -266.0 1360.0
336.0 -265.0 1355.0
339.0 -264.0 1350.0
342.0 -263.0 1344.0
347.0 -263.0 1344.0
351.0 -263.0 1344.0
354.0 -262.0 1339.0
358.0 -261.0 1334.0
361.0 -260.0 1329.0
365.0 -260.0 1329.0
368.0 -259.0 1324.0
373.0 -259.0 1324.0
377.0 -259.0 1324.0
379.0 -257.0 1314.0
382.0 -256.0 1309.0
385.0 -255.0 1304.0
388.0 -254.0 1299.0
392.0 -254.0 1299.0
394.0 -252.0 1289.0
398.0 -252.0 1289.0
402.0 -252.0 1289.0
405.0 -251.0 1284.0
408.0 -250.0 1280.0
413.0 -250.0 1280.0
415.0 -250.0 1275.0
418.0 -249.0 1270.0
421.0 -248.0 1265.0
424.0 -247.0 1261.0
428.0 -247.0 1261.0
430.0 -246.0 1256.0
433.0 -245.0 1252.0
436.0 -244.0 1247.0
440.0 -244.0 1247.0
443.0 -243.0 1243.0
447.0 -243.0 1243.0
450.0 -242.0 1238.0
452.0 -241.0 1234.0
455.0 -241.0 1229.0
457.0 -240.0 1225.0
461.0 -240.0 1225.0
464.0 -239.0 1221.0
466.0 -238.0 1216.0
470.0 -238.0 1216.0
473.0 -237.0 1212.0
476.0 -236.0 1208.0
476.0 -235.0 1200.0
481.0 -235.0 1200.0
483.0 -234.0 1195.0
487.0 -234.0 1195.0
489.0 -233.0 1191.0
490.0 -232.0 1183.0
492.0 -231.0 1179.0
496.0 -231.0 1179.0
498.0 -230.0 1175.0
502.0 -230.0 1175.0
505.0 -229.0 1171.0
507.0 -228.0 1167.0
511.0 -228.0 1167.0
515.0 -228.0 1167.0
517.0 -228.0 1163.0
517.0 -226.0 1155.0
519.0 -225.0 1151.0
522.0 -225.0 1148.0
526.0 -225.0 1148.0
528.0 -224.0 1144.0
528.0 -222.0 1136.0
531.0 -222.0 1133.0
533.0 -221.0 1129.0
536.0 -221.0 1129.0
540.0 -221.0 1129.0
542.0 -220.0 1125.0
543.0 -219.0 1118.0
546.0 -219.0 1118.0
550.0 -219.0 1118.0
552.0 -218.0 1114.0
554.0 -217.0 1111.0
558.0 -217.0 1111.0
558.0 -216.0 1104.0
562.0 -216.0 1104.0
566.0 -216.0 1104.0
569.0 -216.0 1104.0
571.0 -215.0 1100.0
575.0 -215.0 1100.0
577.0 -215.0 1097.0
581.0 -215.0 1097.0
582.0 -214.0 1093.0
586.0 -214.0 1093.0
590.0 -214.0 1093.0
0.0 0.0 0.0
0.0 0.0 0.0
0.0 0.0 0.0
0.0 0.0 0.0
-1849.0 -672.0 3493.0
-1837.0 -672.0 3493.0
-1825.0 -672.0 3493.0
-1814.0 -672.0 3493.0
-1784.0 -665.0 3458.0
-1772.0 -665.0 3458.0
-1760.0 -665.0 3458.0
-1731.0 -659.0 3423.0
-1719.0 -659.0 3423.0
-1708.0 -659.0 3423.0
-1680.0 -652.0 3390.0
-1668.0 -652.0 3390.0
-1657.0 -652.0 3390.0
-1645.0 -652.0 3390.0
-1572.0 -628.0 3262.0
-1546.0 -622.0 3231.0
-1535.0 -622.0 3231.0
-1510.0 -616.0 3201.0
-1499.0 -616.0 3201.0
-1475.0 -610.0 3172.0
-1451.0 -605.0 3143.0
-1440.0 -605.0 3143.0
-1404.0 -594.0 3087.0
-1393.0 -594.0 3087.0
-1370.0 -589.0 3059.0
-1360.0 -589.0 3059.0
-1349.0 -589.0 3059.0
-1339.0 -589.0 3059.0
-1317.0 -584.0 3033.0
-1295.0 -578.0 3006.0
-1274.0 -573.0 2980.0
-1264.0 -573.0 2980.0
-1243.0 -569.0 2955.0
-1223.0 -564.0 2930.0
-1213.0 -564.0 2930.0
-1193.0 -559.0 2905.0
-1183.0 -559.0 2905.0
-1163.0 -554.0 2881.0
-1154.0 -554.0 2881.0
-1144.0 -554.0 2881.0
-399.0 -195.0 1013.0
-395.0 -195.0 1013.0
-392.0 -195.0 1013.0
-387.0 -194.0 1010.0
-383.0 -194.0 1007.0
-379.0 -194.0 1007.0
-375.0 -193.0 1004.0
-370.0 -193.0 1001.0
-366.0 -192.0 998.0
-361.0 -191.0 993.0
-355.0 -190.0 987.0
-351.0 -189.0 984.0
-346.0 -189.0 981.0
-342.0 -188.0 978.0
-339.0 -188.0 978.0
-335.0 -188.0 978.0
-332.0 -188.0 978.0
-329.0 -188.0 978.0
-325.0 -188.0 978.0
-324.0 -189.0 984.0
-322.0 -190.0 987.0
-319.0 -191.0 990.0
-317.0 -191.0 993.0
-314.0 -191.0 995.0
-311.0 -191.0 995.0
-307.0 -191.0 995.0
-303.0 -191.0 993.0
-299.0 -191.0 990.0
-296.0 -191.0 990.0
-282.0 -184.0 954.0
-278.0 -184.0 954.0
-275.0 -184.0 954.0
-272.0 -184.0 954.0
-269.0 -184.0 954.0
-265.0 -184.0 954.0
-262.0 -184.0 954.0
-259.0 -184.0 954.0
-256.0 -184.0 954.0
-251.0 -183.0 949.0
-246.0 -181.0 941.0
-242.0 -181.0 939.0
-238.0 -180.0 936.0
-235.0 -180.0 936.0
-231.0 -180.0 933.0
-227.0 -179.0 928.0
-222.0 -178.0 923.0
-219.0 -178.0 923.0
-216.0 -177.0 921.0
-212.0 -177.0 919.0
-208.0 -176.0 916.0
-205.0 -176.0 914.0
-202.0 -176.0 914.0
-199.0 -176.0 914.0
-195.0 -176.0 914.0
-192.0 -176.0 914.0
-189.0 -175.0 911.0
-185.0 -175.0 911.0
-182.0 -175.0 911.0
-179.0 -175.0 909.0
-175.0 -175.0 907.0
-172.0 -175.0 907.0
-170.0 -175.0 911.0
-167.0 -175.0 909.0
-163.0 -175.0 909.0
-160.0 -175.0 909.0
-157.0 -175.0 909.0
-154.0 -175.0 907.0
-151.0 -175.0 909.0
-148.0 -175.0 909.0
-145.0 -175.0 909.0
-142.0 -175.0 911.0
-139.0 -175.0 911.0
-136.0 -175.0 911.0
-133.0 -175.0 911.0
-130.0 -175.0 911.0
-127.0 -176.0 914.0
-124.0 -176.0 914.0
-121.0 -176.0 916.0
-118.0 -176.0 916.0
-115.0 -177.0 919.0
-113.0 -177.0 921.0
-109.0 -177.0 921.0
-106.0 -178.0 923.0
-104.0 -178.0 926.0
-101.0 -179.0 928.0
-98.0 -179.0 931.0
-95.0 -180.0 933.0
-92.0 -180.0 936.0
-89.0 -181.0 941.0
-86.0 -181.0 941.0
-83.0 -182.0 946.0
-81.0 -183.0 952.0
-78.0 -184.0 954.0
-75.0 -184.0 957.0
-72.0 -185.0 962.0
-69.0 -186.0 965.0
-66.0 -187.0 970.0
-63.0 -187.0 973.0
-59.0 -187.0 973.0
-56.0 -188.0 976.0
-53.0 -187.0 970.0
-49.0 -187.0 970.0
-46.0 -188.0 976.0
-43.0 -188.0 978.0
-40.0 -189.0 984.0
-37.0 -189.0 984.0
-33.0 -189.0 981.0
-30.0 -187.0 973.0
-26.0 -185.0 962.0
-23.0 -185.0 959.0
-19.0 -184.0 957.0
-16.0 -185.0 959.0
-13.0 -185.0 959.0
-10.0 -185.0 962.0
-7.0 -186.0 965.0
-3.0 -186.0 965.0
0.0 -186.0 965.0
3.0 -186.0 968.0
7.0 -187.0 970.0
10.0 -187.0 973.0
13.0 -187.0 973.0
17.0 -187.0 973.0
20.0 -188.0 976.0
23.0 -188.0 976.0
26.0 -188.0 976.0
30.0 -188.0 978.0
33.0 -189.0 981.0
37.0 -189.0 981.0
40.0 -189.0 981.0
43.0 -189.0 984.0
47.0 -189.0 984.0
50.0 -189.0 984.0
53.0 -189.0 984.0
57.0 -189.0 984.0
60.0 -190.0 987.0
64.0 -191.0 990.0
67.0 -191.0 993.0
71.0 -191.0 995.0
74.0 -191.0 995.0
78.0 -191.0 995.0
0.0 0.0 0.0
0.0 0.0 0.0
0.0 0.0 0.0
0.0 0.0 0.0
0.0 0.0 0.0
0.0 0.0 0.0
155.0 -293.0 1522.0
160.0 -293.0 1522.0
165.0 -292.0 1515.0
170.0 -292.0 1515.0
174.0 -290.0 1509.0
179.0 -290.0 1509.0
183.0 -289.0 1502.0
189.0 -289.0 1502.0
193.0 -288.0 1496.0
198.0 -288.0 1496.0
202.0 -287.0 1489.0
206.0 -285.0 1483.0
211.0 -285.0 1483.0
216.0 -284.0 1477.0
219.0 -283.0 1470.0
224.0 -282.0 1464.0
229.0 -282.0 1464.0
233.0 -282.0 1464.0
237.0 -281.0 1458.0
241.0 -279.0 1452.0
245.0 -278.0 1446.0
250.0 -278.0 1446.0
254.0 -277.0 1440.0
258.0 -276.0 1434.0
262.0 -275.0 1428.0
267.0 -275.0 1428.0
270.0 -274.0 1422.0
275.0 -274.0 1422.0
280.0 -274.0 1422.0
282.0 -271.0 1410.0
286.0 -270.0 1404.0
290.0 -269.0 1399.0
294.0 -269.0 1399.0
299.0 -269.0 1399.0
303.0 -268.0 1393.0
307.0 -268.0 1393.0
311.0 -267.0 1388.0
314.0 -266.0 1382.0
316.0 -264.0 1371.0
320.0 -263.0 1366.0
324.0 -263.0 1366.0
329.0 -263.0 1366.0
332.0 -262.0 1360.0
336.0 -261.0 1355.0
339.0 -260.0 1350.0
344.0 -260.0 1350.0
347.0 -259.0 1344.0
351.0 -259.0 1344.0
354.0 -258.0 1339.0
358.0 -257.0 1334.0
361.0 -256.0 1329.0
364.0 -255.0 1324.0
368.0 -255.0 1324.0
373.0 -255.0 1324.0
376.0 -254.0 1319.0
379.0 -253.0 1314.0
382.0 -252.0 1309.0
385.0 -251.0 1304.0
389.0 -251.0 1304.0
392.0 -250.0 1299.0
395.0 -249.0 1294.0
398.0 -248.0 1289.0
402.0 -248.0 1289.0
405.0 -247.0 1284.0
408.0 -246.0 1280.0
413.0 -246.0 1280.0
414.0 -244.0 1270.0
418.0 -244.0 1270.0
421.0 -243.0 1265.0
424.0 -243.0 1261.0
428.0 -243.0 1261.0
430.0 -242.0 1256.0
435.0 -242.0 1256.0
